0.038358 -0.005855 0.724051 -0.165662 0.113095 0.979371 
0.014578 0.109518 0.751209 -0.102578 0.167988 0.976461 
0.300440 0.331913 0.583142 -0.086622 0.241847 0.965715 
0.447987 0.702882 0.100819 -0.045800 0.398373 0.913214 
0.299411 0.345512 0.616912 -0.100797 0.215429 0.970077 
0.221241 0.371682 0.790209 -0.121731 0.190671 0.972719 
0.199389 -0.131970 -0.171143 -0.167368 0.112872 0.979142 
0.197543 -0.110866 -0.161875 -0.163238 0.125827 0.978267 
-0.003834 0.003268 1.033464 -0.165247 0.107972 0.980219 
-0.001036 0.002256 1.002442 -0.163741 0.109799 0.980214 
0.083964 -0.015188 0.578579 -0.160194 0.119701 0.979599 
-0.003178 0.002997 1.023975 -0.162949 0.102852 0.981113 
-0.001067 0.002281 1.002650 -0.164599 0.109104 0.980187 
-0.019134 0.017439 1.125898 -0.161792 0.107347 0.980793 
0.027178 -0.004062 0.833475 -0.156885 0.092660 0.982970 
-0.023087 0.019576 1.142271 -0.161954 0.110414 0.980463 
0.003608 0.000335 0.968508 -0.159857 0.098250 0.981982 
-0.004962 0.003349 1.036115 -0.163455 0.116505 0.979506 
0.000162 0.000761 1.009536 -0.107527 0.081628 0.986103 
-0.083874 0.072914 1.528633 -0.161263 0.124465 0.978876 
0.006898 -0.002415 0.966201 -0.163790 0.116090 0.979481 
0.006393 0.027375 1.013580 -0.161288 0.114457 0.980056 
0.022891 0.020793 0.772986 -0.166485 0.125624 0.977787 
0.003130 0.055248 1.036519 -0.162627 0.122348 0.978903 
-0.104191 0.239443 1.296513 -0.173749 0.165403 0.970539 
0.006123 0.001646 0.972460 -0.163716 0.116837 0.979403 
0.136622 0.112905 0.713601 -0.142203 0.151359 0.977891 
0.214104 0.139356 0.590761 -0.127213 0.162889 0.978017 
0.006891 -0.001281 0.971816 -0.160539 0.102677 0.981462 
0.007403 -0.006483 0.959344 -0.163265 0.114450 0.979753 
0.047257 0.024428 0.838376 -0.160005 0.116729 0.980000 
0.029600 -0.020977 0.832199 -0.160046 0.107975 0.981024 
-0.195788 0.329271 1.556927 -0.173271 0.137205 0.974521 
0.132309 0.119040 0.746660 -0.144422 0.144838 0.978554 
0.122906 0.122227 0.768516 -0.147007 0.132448 0.979865 
0.213538 0.140536 0.596533 -0.134293 0.140952 0.980368 
-0.000658 0.003071 0.987430 -0.164669 0.116729 0.979259 
0.044713 0.026429 0.853867 -0.158196 0.112786 0.980702 
-0.000496 0.002717 0.986916 -0.157516 0.091715 0.983008 
-0.018106 0.272055 1.093240 -0.161455 0.155355 0.973998 
0.005972 0.001819 0.973417 -0.164382 0.112835 0.979776 
-0.111963 0.247679 1.335790 -0.170227 0.136816 0.975356 
0.219082 0.130385 0.545443 -0.136393 0.134465 0.980932 
-0.410532 0.574670 2.125169 -0.196111 0.175919 0.964327 
-0.000626 0.020628 1.006287 -0.164549 0.115934 0.979380 
0.000845 0.115420 1.075036 -0.161254 0.128396 0.978307 
0.005911 0.001828 0.973707 -0.164385 0.112830 0.979776 
0.034228 0.042409 0.977130 -0.155832 0.126065 0.979547 
-0.191449 0.247846 1.542754 -0.166273 0.108765 0.979463 
-0.000717 0.003121 0.987767 -0.165268 0.112737 0.979640 
-0.036658 0.032109 1.224172 -0.161202 0.101515 0.981507 
-0.451480 0.419271 4.007573 -0.157501 0.111844 0.981070 
0.190312 0.193776 0.631792 -0.135527 0.137467 0.979715 
0.005807 0.001947 0.974346 -0.163078 0.107738 0.980539 
-0.204734 0.259725 1.612313 -0.177874 0.135521 0.974260 
-0.644231 0.733513 2.690102 -0.208121 0.175095 0.961830 
0.006273 -0.002222 0.968533 -0.162523 0.101755 0.981280 
0.266612 0.026250 0.651165 -0.129532 0.101350 0.985933 
-0.187103 0.319559 1.495253 -0.166502 0.116849 0.978310 
0.006280 -0.001035 0.972946 -0.160611 0.102696 0.981448 
0.084016 0.086246 0.938149 -0.148950 0.131785 0.979801 
-0.189677 0.322375 1.518312 -0.180359 0.157301 0.970242 
0.006235 -0.005576 0.962977 -0.156103 0.088797 0.983494 
0.001386 0.001867 0.983233 -0.163077 0.105446 0.980764 
-0.092014 0.133947 1.291541 -0.160660 0.100173 0.981490 
-0.145708 0.398193 1.473493 -0.164708 0.137698 0.975503 
0.007644 -0.005182 0.960507 -0.161467 0.102824 0.981293 
0.001293 0.114507 1.073796 -0.158828 0.137606 0.977375 
0.215776 0.147430 0.604702 -0.135530 0.135932 0.980843 
-0.199242 0.331872 1.568076 -0.166406 0.117049 0.978310 
0.009748 -0.009017 0.942006 -0.163254 0.114427 0.979764 
-0.006583 0.253944 1.346107 -0.154004 0.135377 0.978342 
-0.375221 0.482569 2.502895 -0.167557 0.118943 0.977947 
-0.008470 0.256451 1.358758 -0.151805 0.142135 0.977546 
0.186759 -0.118836 -0.096703 -0.160948 0.108433 0.980673 
-0.007848 0.255635 1.354694 -0.152680 0.141053 0.977725 
-0.014828 0.040612 1.136960 -0.160726 0.107931 0.980931 
0.008545 -0.007143 0.952505 -0.162151 0.107979 0.980662 
0.004954 -0.001348 0.974300 -0.164205 0.106760 0.980536 
0.005216 -0.001799 0.972452 -0.164804 0.110030 0.980080 
0.116407 -0.001889 0.866268 -0.145539 0.104240 0.983652 
-0.069310 0.190932 1.485797 -0.156921 0.110276 0.981064 
0.005280 -0.005229 0.961331 -0.160459 0.100993 0.981611 
0.007101 -0.004541 0.963979 -0.161827 0.099203 0.981677 
0.091867 0.010657 0.985598 -0.144490 0.103999 0.983929 
-0.741099 0.961780 4.663586 -0.166883 0.136662 0.975635 
-0.231695 1.468692 0.515684 -0.182020 0.236715 0.947145 
-0.258855 1.517682 0.613690 -0.182555 0.238229 0.946685 
-1.326806 1.913022 2.928071 -0.226663 0.212455 0.946028 
-1.242542 1.819183 2.692571 -0.266693 0.285310 0.919351 
0.349251 0.305139 0.142480 -0.120221 0.183089 0.973904 
0.026048 0.046694 1.022290 -0.154071 0.105000 0.982105 
0.157286 0.114281 0.726440 -0.142257 0.122207 0.981624 
0.013523 -0.012520 0.919303 -0.159758 0.095744 0.982310 
0.055260 0.044037 0.966746 -0.152258 0.101547 0.982842 
0.005109 0.053212 1.023012 -0.158203 0.104547 0.981565 
0.014621 -0.012361 0.920518 -0.162593 0.102317 0.981192 
0.012938 -0.011351 0.917220 -0.164337 0.110828 0.980045 
0.157178 -0.094893 0.072857 -0.157723 0.093482 0.982788 
-0.269899 0.263039 2.195592 -0.175377 0.140738 0.974270 
-0.196802 1.407017 0.347688 -0.185142 0.249157 0.943502 
-1.266516 1.847282 2.839714 -0.279349 0.310846 0.908176 
-0.266782 1.550845 0.622534 -0.202411 0.325223 0.919806 
-0.245792 1.513358 0.520844 -0.202675 0.325369 0.919566 
-0.575029 0.641886 2.728254 -0.203345 0.176177 0.962870 
-0.913181 0.961384 3.654165 -0.220013 0.193670 0.955829 
-0.250884 0.304605 1.821541 -0.182312 0.148783 0.971688 
-0.425096 0.396915 3.756584 -0.157448 0.127321 0.979214 
-0.125383 0.112789 1.795791 -0.158106 0.129545 0.978743 
0.089697 0.109915 0.863701 -0.149704 0.115434 0.981510 
-0.174801 0.156900 2.094479 -0.161311 0.116028 0.979902 
0.012248 -0.010753 0.925517 -0.163877 0.113596 0.979737 
0.185887 0.119057 0.667265 -0.134698 0.149277 0.979119 
0.012438 -0.011286 0.919962 -0.160662 0.097482 0.981989 
-0.249193 0.221498 2.585920 -0.161291 0.114468 0.980135 
0.026769 0.048154 1.021250 -0.157601 0.123307 0.979554 
0.033489 0.098604 1.051373 -0.155652 0.116820 0.980619 
0.015123 -0.014121 0.912854 -0.163961 0.114883 0.979593 
-0.125631 0.261595 1.403066 -0.174764 0.158601 0.971539 
-0.414408 0.579571 2.132413 -0.196449 0.176439 0.964162 
0.202216 0.166875 0.503784 -0.135975 0.164580 0.976482 
0.032930 0.099126 1.054968 -0.155417 0.125940 0.979522 
0.032075 -0.023789 0.815387 -0.162470 0.100943 0.981367 
-0.139741 0.381937 1.474927 -0.171618 0.180325 0.967874 
0.015118 -0.014117 0.912883 -0.162856 0.111045 0.980220 
0.014487 -0.012958 0.917114 -0.164600 0.111105 0.979938 
-0.712359 0.802829 2.957949 -0.202361 0.165778 0.964453 
-0.741767 0.831971 3.090271 -0.206363 0.175668 0.961973 
0.172360 0.102614 0.632491 -0.140639 0.138283 0.979909 
-0.139927 0.124587 1.898413 -0.160728 0.107007 0.981003 
-0.407396 0.574148 2.110061 -0.194464 0.174466 0.964850 
0.214767 0.133766 0.557356 -0.134075 0.143911 0.979801 
0.205751 0.252586 0.489563 -0.138157 0.162127 0.975788 
0.166884 0.107524 0.667942 -0.141718 0.130959 0.980745 
0.212193 0.239620 0.436297 -0.137040 0.164230 0.975724 
0.115299 0.117866 0.767586 -0.149166 0.124324 0.980528 
0.013580 -0.009929 0.929239 -0.160282 0.097540 0.982046 
0.003551 -0.000716 0.960838 -0.156625 0.091652 0.983144 
0.011172 -0.003341 0.939877 -0.161125 0.100087 0.981641 
-0.202996 0.216056 1.920097 -0.162969 0.107737 0.980239 
0.083301 0.143229 0.959343 -0.146266 0.144958 0.978187 
0.006261 0.000746 0.970194 -0.164643 0.110667 0.980032 
-0.453641 0.459183 2.911819 -0.175298 0.124968 0.976245 
-0.018764 0.044481 1.160702 -0.161997 0.111829 0.980299 
0.018286 -0.016205 0.890305 -0.162440 0.105098 0.980931 
-0.383285 0.487666 2.527971 -0.168821 0.124341 0.976929 
0.007303 -0.001085 0.959619 -0.162361 0.103385 0.981167 
0.012902 -0.009552 0.921753 -0.163616 0.106598 0.980629 
-0.678244 0.802876 3.428882 -0.190905 0.161570 0.967576 
-0.123282 0.215436 1.730996 -0.162097 0.120800 0.979067 
-0.106429 0.198551 1.629846 -0.160611 0.119073 0.979475 
-0.274410 0.401764 2.538868 -0.164135 0.137472 0.976440 
-0.087610 0.112121 1.623295 -0.157088 0.111702 0.981131 
0.014329 -0.010427 0.909879 -0.157545 0.095218 0.982637 
-0.144634 4.065846 1.480455 -0.142409 0.567624 0.804627 
-1.322511 1.935499 2.983393 -0.218651 0.200463 0.951450 
-0.114264 3.944388 1.331491 -0.144536 0.538193 0.826167 
-0.144477 4.067128 1.482043 -0.140900 0.598959 0.784657 
-0.235977 0.488569 2.016468 -0.172064 0.149890 0.973448 
-0.222876 1.427949 0.450884 -0.182626 0.234858 0.947523 
-1.337763 1.929097 2.950127 -0.226975 0.213146 0.945773 
0.266357 0.199257 0.321764 -0.138285 0.122816 0.982195 
-0.566690 0.490193 4.442692 -0.160948 0.124165 0.979028 
-0.360119 0.324646 3.043396 -0.164574 0.121797 0.978673 
-0.211205 0.223904 1.783892 -0.172530 0.119387 0.977443 
-0.193488 0.211007 1.704571 -0.169909 0.114825 0.978446 
-0.276544 0.366257 2.956661 -0.155205 0.122617 0.980047 
0.050041 -0.037255 0.710455 -0.164899 0.111672 0.979788 
-0.788128 0.776901 5.081886 -0.174619 0.146908 0.973540 
-0.193933 0.211057 1.705019 -0.173607 0.131031 0.975786 
-0.073019 0.106766 1.299838 -0.163508 0.113742 0.979632 
-0.411992 0.378034 3.599079 -0.159287 0.110069 0.980931 
0.024050 -0.020527 0.865894 -0.161229 0.109953 0.980547 
-0.142964 0.392600 1.421690 -0.172366 0.153529 0.972427 
0.023768 -0.021192 0.868292 -0.157194 0.091338 0.983110 
-0.141488 0.391096 1.415305 -0.170385 0.147063 0.973678 
-0.073812 0.107470 1.304243 -0.160801 0.106039 0.980839 
0.028764 -0.018808 0.835596 -0.161668 0.100815 0.981487 
-0.527868 0.469582 4.198217 -0.157575 0.108309 0.981333 
-0.357041 0.300370 3.333634 -0.157236 0.117858 0.980399 
0.015687 -0.012189 0.898699 -0.159473 0.095466 0.982411 
-0.115065 3.872005 1.278042 -0.146050 0.535065 0.827908 
-0.228913 1.446295 0.482970 -0.193826 0.272885 0.940783 
0.235429 0.677375 1.461632 -0.122294 0.172228 0.977267 
0.105028 0.389160 0.632513 -0.155807 0.161296 0.974297 
-0.215377 0.225556 1.982837 -0.170672 0.124696 0.977157 
-0.357886 0.301076 3.339051 -0.157887 0.108056 0.981439 
0.059208 0.008497 0.840239 -0.155208 0.103351 0.982241 
0.485577 1.480020 -0.106886 -0.114051 0.302863 0.943906 
0.516246 1.432772 -0.321841 -0.113184 0.306101 0.942756 
0.384720 0.732176 0.754765 -0.119593 0.166775 0.977797 
0.467040 1.637634 0.124432 -0.115499 0.289169 0.947237 
-1.266442 2.001277 2.712700 -0.241505 0.252823 0.935312 
-1.227645 1.105845 5.407137 -0.186566 0.127624 0.973414 
-0.149792 0.699792 2.054856 -0.154804 0.141506 0.977204 
0.191214 0.349705 0.964472 -0.137375 0.123961 0.982264 
0.018011 -0.014686 0.910149 -0.161674 0.110953 0.980370 
0.043407 -0.036161 0.747335 -0.158294 0.105346 0.981458 
-0.528861 0.543943 2.859775 -0.186668 0.144821 0.971334 
0.183639 0.297627 0.045802 -0.154036 0.175984 0.970273 
0.213224 -0.138019 -0.322072 -0.157522 0.098647 0.982081 
0.019950 -0.003652 0.884524 -0.159165 0.106921 0.981107 
0.018012 -0.014688 0.910137 -0.158161 0.105741 0.981451 
-0.527180 0.501649 3.307932 -0.163369 0.099994 0.981177 
-0.800056 0.731244 4.247782 -0.187778 0.136496 0.972582 
-0.126383 0.236477 1.847391 -0.160138 0.115544 0.980224 
-0.537647 0.508500 3.363980 -0.169081 0.109801 0.979208 
-0.648346 0.929763 2.824003 -0.179050 0.138171 0.973099 
-0.569453 0.467052 4.509836 -0.159087 0.111528 0.980848 
0.034638 -0.027675 0.799436 -0.162247 0.108025 0.980670 
0.131380 -0.085198 0.196064 -0.161879 0.110689 0.980336 
0.131424 -0.085237 0.195792 -0.160861 0.104330 0.981198 
-0.043237 0.041490 1.172052 -0.158038 0.095032 0.982516 
-0.190274 0.184455 2.213644 -0.160739 0.103426 0.981485 
-0.327495 0.271923 3.280797 -0.152675 0.106684 0.982445 
0.289143 1.043423 0.328988 -0.132539 0.250936 0.958235 
-0.199497 0.424626 3.081102 -0.144457 0.092031 0.985104 
-0.541072 0.313526 4.158617 -0.164939 0.100067 0.981153 
-1.166040 0.855312 8.394264 -0.152485 0.089087 0.984197 
0.228612 -0.138961 -0.352924 -0.153568 0.079960 0.984798 
-0.155517 0.242930 2.075231 -0.151097 0.088429 0.984346 
-1.725197 1.518584 11.700108 -0.158468 0.127984 0.978963 
-0.429393 0.757862 2.980992 -0.159211 0.130436 0.976999 
0.112572 -0.087027 0.336710 -0.154564 0.097430 0.982864 
-2.368280 1.876379 8.821058 -0.186525 0.115075 0.975378 
0.169568 0.921561 4.626453 -0.119796 0.099227 0.987681 
-0.523809 0.591303 3.290487 -0.156330 0.091574 0.983345 
-4.222180 3.207841 11.792211 -0.241927 0.162507 0.956027 
-0.278991 0.810866 2.740252 -0.148200 0.103657 0.983251 
0.267452 1.007829 3.427797 -0.118359 0.113009 0.986152 
0.389076 -0.234533 -1.380816 -0.149331 0.074520 0.985901 
0.443843 -0.270211 -1.736075 -0.160276 0.086501 0.983155 
0.047671 -0.025203 0.599810 -0.153567 0.079113 0.984854 
-1.689770 1.888307 5.394304 -0.204384 0.163085 0.962903 
-0.103314 0.125203 1.825245 -0.148218 0.090730 0.984421 
-4.482147 3.254108 12.165105 -0.232874 0.148578 0.960924 
1.951638 -0.905352 -12.041513 -0.144263 0.076116 0.986544 
-0.198283 3.772094 -4.013110 -0.186308 0.273786 0.942392 
0.255259 2.857038 -4.184704 -0.165416 0.217270 0.960911 
-0.398954 1.612901 0.951754 -0.160284 0.132073 0.977996 
0.115646 1.738647 1.349756 -0.138651 0.160516 0.977000 
0.162639 1.676685 1.022496 -0.138633 0.160183 0.977050 
0.451400 1.423767 3.214368 -0.114131 0.126434 0.985227 
0.431144 1.484944 3.505208 -0.111389 0.133682 0.984621 
-7.314980 7.666208 9.733064 -0.327004 0.291935 0.897845 
-6.804212 7.184528 8.461756 -0.310258 0.269854 0.909506 
-1.432591 0.936433 7.078321 -0.170765 0.094829 0.980654 
-1.289390 1.034839 6.005323 -0.172560 0.103628 0.979412 
-1.289587 1.034435 6.004790 -0.168761 0.098102 0.980602 
0.169618 1.257468 6.665204 -0.106766 0.111001 0.987964 
-2.294498 1.823581 8.475069 -0.187626 0.116278 0.975078 
-0.760695 1.044245 3.291924 -0.191589 0.161972 0.967011 
-0.789559 1.071159 3.422664 -0.189677 0.158065 0.968085 
-0.169877 3.826892 1.206880 -0.150790 0.435333 0.863377 
-0.100573 1.614846 1.482665 -0.152559 0.178985 0.971672 
-1.649027 4.576355 0.789889 -0.243334 0.355766 0.900207 
-5.236010 3.785824 11.126484 -0.282734 0.186858 0.940509 
0.063072 0.762493 3.487687 -0.126537 0.111423 0.985565 
-0.385160 4.222499 -0.058280 -0.186192 0.434749 0.878251 
-0.061650 0.583998 2.634791 -0.140458 0.101606 0.984712 
-0.208393 0.276071 2.419014 -0.150819 0.087047 0.984615 
-0.740806 0.862121 3.842415 -0.165031 0.107570 0.980081 
-0.065137 0.689891 4.512424 -0.125252 0.101449 0.986788 
-0.046166 0.673647 4.369231 -0.125363 0.100734 0.986831 
-1.022539 5.354316 0.408931 -0.206983 0.408069 0.886384 
-1.857151 4.904727 1.516650 -0.243634 0.357418 0.899646 
-5.638704 10.656849 5.653893 -0.326712 0.486723 0.807647 
-5.142159 8.343328 5.209573 -0.328051 0.419791 0.844180 
-2.278658 1.820170 8.506801 -0.191125 0.121126 0.973706 
-0.364061 1.030005 2.571454 -0.160824 0.141195 0.976645 
-0.366121 1.032858 2.586493 -0.157087 0.127428 0.978990 
-2.398974 11.611022 4.757697 -0.203018 0.569426 0.790105 
-1.265945 1.957445 2.836529 -0.203276 0.177694 0.960882 
0.155176 0.722647 1.237957 -0.131131 0.174386 0.972927 
0.414034 0.010937 -1.845343 -0.171759 0.157224 0.969516 
0.211602 0.648803 0.834851 -0.137444 0.154523 0.978075 
1.150490 1.852189 3.426916 -0.028886 0.223970 0.973712 
-1.463803 2.262509 3.174990 -0.227279 0.224592 0.946250 
-0.016251 0.267393 1.776980 -0.149533 0.110907 0.982444 
-0.211452 0.761302 2.370075 -0.158851 0.152259 0.975262 
-0.027521 0.178759 1.419470 -0.155343 0.103272 0.982376 
-0.124109 0.352844 2.098069 -0.150030 0.112780 0.981710 
-1.142125 1.043107 4.991716 -0.183411 0.122842 0.974709 
-0.498694 0.406372 3.148061 -0.165932 0.098194 0.981053 
-1.147269 1.046298 5.025118 -0.183329 0.122758 0.974739 
-0.504142 0.410829 3.176368 -0.164076 0.095873 0.981490 
-0.135801 0.246096 1.899442 -0.152716 0.091954 0.983808 
-1.092533 1.004783 4.769248 -0.183091 0.122412 0.974816 
-1.150546 1.049062 5.065348 -0.179772 0.117790 0.976136 
-0.921172 0.934662 4.848097 -0.179861 0.130379 0.974803 
0.140397 -0.093032 0.169758 -0.162657 0.092434 0.982305 
0.001686 0.065155 1.073652 -0.160428 0.098273 0.982073 
0.140416 -0.093044 0.169643 -0.161890 0.089681 0.982684 
0.182335 -0.114090 -0.093834 -0.156846 0.084353 0.983928 
0.111700 -0.075455 0.323788 -0.161387 0.089564 0.982761 
0.116864 -0.071528 0.322025 -0.161628 0.090700 0.982633 
-0.123532 0.363314 1.747178 -0.159111 0.121069 0.979559 
0.174379 -0.105288 -0.043410 -0.154613 0.081447 0.984475 
0.114407 -0.076327 0.312137 -0.156863 0.084088 0.983925 
0.144265 -0.093664 0.148086 -0.152116 0.077301 0.985226 
0.187834 0.366365 2.118659 -0.125424 0.104124 0.986347 
-0.495995 0.483628 3.091801 -0.167885 0.106083 0.979816 
0.114534 -0.076403 0.311400 -0.155432 0.082390 0.984249 
0.064850 -0.056948 0.615005 -0.159313 0.106855 0.981145 
0.121921 -0.081066 0.264113 -0.162108 0.109615 0.980404 
0.175246 -0.111188 -0.053670 -0.165041 0.096828 0.981479 
0.055545 -0.016665 0.674128 -0.163832 0.100264 0.981328 
0.042613 -0.033831 0.746609 -0.159862 0.110349 0.980709 
-0.118134 0.271353 2.213209 -0.147435 0.123217 0.981061 
-0.288944 0.247428 2.868012 -0.159101 0.103744 0.981693 
-1.782781 4.772776 1.201709 -0.265866 0.421220 0.864784 
0.320819 0.819848 1.024501 -0.129917 0.134947 0.981968 
-8.882116 8.557724 11.724960 -0.402468 0.357372 0.842078 
0.590067 1.424604 3.182482 -0.098072 0.150853 0.983156 
-8.408705 8.167008 10.888372 -0.385816 0.340619 0.855743 
-8.573184 8.289017 11.143728 -0.387204 0.340991 0.854994 
-2.248603 1.782562 8.296123 -0.196007 0.125976 0.971979 
-2.236121 1.773938 8.244242 -0.195942 0.125918 0.971998 
0.037107 0.605769 2.374144 -0.135832 0.117114 0.983551 
-0.129042 0.252420 2.362284 -0.146495 0.085277 0.985407 
-0.005864 0.465844 2.341865 -0.140335 0.118299 0.982834 
-1.353896 1.293432 5.377299 -0.200317 0.146752 0.968319 
-0.100323 0.135118 1.699316 -0.156323 0.093194 0.983232 
0.730173 -0.092083 -2.092330 -0.123721 0.113923 0.984998 
-1.326264 1.269897 5.251960 -0.185245 0.124885 0.973948 
-0.073322 0.128977 1.571481 -0.152071 0.085881 0.984505 
-0.052723 3.539567 0.660498 -0.152148 0.528989 0.823735 
-0.497036 0.422704 3.285582 -0.161741 0.093660 0.982174 
-0.077354 0.132497 1.596028 -0.151179 0.083882 0.984822 
-0.692970 0.753332 3.848183 -0.180501 0.133483 0.974294 
0.186171 -0.114665 -0.072875 -0.164592 0.096356 0.981576 
0.221541 -0.132705 -0.295228 -0.161498 0.089860 0.982708 
0.253326 -0.149309 -0.477538 -0.161302 0.092812 0.982406 
0.440742 -0.242564 -1.631093 -0.164046 0.097219 0.981527 
0.155724 -0.097042 0.091632 -0.163082 0.091918 0.982275 
-0.058808 0.286075 2.006435 -0.149550 0.107510 0.982738 
0.056614 0.435769 1.761620 -0.140626 0.118817 0.982626 
0.049438 -0.040089 0.730039 -0.159932 0.100998 0.981739 
-0.136508 0.179729 1.668664 -0.153321 0.095855 0.982967 
-0.805394 1.090506 3.493563 -0.202497 0.184581 0.961206 
-1.134190 0.933555 6.059911 -0.160959 0.092287 0.982578 
-1.435287 1.361375 6.615431 -0.165626 0.101146 0.980873 
-1.484818 5.019564 -1.133987 -0.220857 0.304134 0.921207 
0.312196 1.867941 11.277838 -0.086695 0.111362 0.989935 
-1.431803 4.925447 -1.324728 -0.215827 0.288124 0.928349 
-4.885775 6.757804 10.100684 -0.252268 0.261715 0.929414 
0.606699 -0.312120 -2.753818 -0.154027 0.080305 0.984718 
0.428140 -0.239101 -1.562816 -0.147614 0.071757 0.986395 
-0.351465 1.072023 8.028674 -0.124140 0.090903 0.988029 
-0.062968 0.136691 1.542103 -0.149133 0.076838 0.985754 
0.454650 -0.250673 -1.737463 -0.148662 0.069960 0.986346 
0.503436 -0.257269 -2.132699 -0.147819 0.072575 0.986297 
0.334221 -0.185705 -1.056293 -0.148099 0.071929 0.986310 
0.230218 -0.118041 -0.449031 -0.150741 0.075110 0.985649 
0.523038 -0.291245 -2.224681 -0.153424 0.080112 0.984828 
0.523058 -0.291254 -2.224801 -0.149943 0.074879 0.985802 
0.519308 -0.267800 -2.303003 -0.150729 0.074413 0.985669 
-0.532501 0.304125 4.607416 -0.148871 0.076608 0.985833 
-1.002700 0.715140 7.650584 -0.148147 0.080447 0.985616 
-0.948751 0.576642 6.728645 -0.159799 0.091384 0.982833 
-5.635619 3.321229 32.998440 -0.162605 0.089885 0.982551 
0.613980 2.216919 -6.061468 -0.166885 0.231765 0.957038 
-2.299290 2.293068 15.423800 -0.153796 0.134485 0.978605 
-20.811880 21.019312 102.368774 -0.189826 0.180582 0.964980 
0.442263 2.563700 -9.691834 -0.205246 0.257215 0.943915 
2.003445 1.029105 -12.052862 -0.137707 0.202585 0.969290 
-2.259850 4.175438 1.644379 -0.215288 0.208284 0.953990 
2.762572 2.907058 -14.074750 -0.100635 0.331026 0.935090 
0.910281 2.146283 -9.501388 -0.178215 0.233178 0.955687 
2.657594 3.409614 -13.005014 -0.093708 0.376401 0.920315 
2.629158 3.548804 -12.708368 -0.093572 0.377332 0.920001 
1.226026 1.526908 -9.829514 -0.164729 0.203247 0.964979 
2.706308 2.841894 -13.663844 -0.101982 0.318315 0.939769 
-3.242605 4.385421 -1.635979 -0.275834 0.238653 0.930897 
2.505968 3.770359 -11.595134 -0.100549 0.328180 0.937020 
-1.873446 3.212298 -6.114266 -0.262073 0.220837 0.938705 
2.088913 -1.013394 -13.175714 -0.147450 0.074415 0.986190 
-4.783980 60.190441 49.210388 -0.087462 0.646356 0.757358 
0.055828 0.805153 1.772973 -0.138939 0.096522 0.985519 
-0.264962 1.040661 4.052427 -0.138925 0.096729 0.985511 
-0.811552 1.085723 3.465189 -0.160121 0.100169 0.981943 
1.947961 -0.934838 -12.247148 -0.146569 0.071477 0.986549 
-1.184867 11.876566 -2.191641 -0.186128 0.539358 0.815605 
-2.594122 2.035807 9.995746 -0.187622 0.118700 0.974923 
1.645279 -0.559910 -9.546996 -0.139106 0.090333 0.986054 
-2.594122 2.035807 9.995746 -0.181886 0.112230 0.976835 
-0.058437 0.091980 1.763722 -0.146919 0.073544 0.986355 
-0.866040 0.614056 5.139843 -0.157076 0.083562 0.983970 
-13.689124 13.019391 21.913239 -0.363100 0.316058 0.873850 
-0.823549 1.508722 12.088173 -0.122052 0.095235 0.987902 
-13.686796 12.935118 21.810070 -0.364005 0.315046 0.873827 
0.054384 0.961086 5.947995 -0.119201 0.094017 0.988261 
-13.383939 12.640458 21.150242 -0.363712 0.314102 0.874212 
-0.530881 0.724905 3.652154 -0.151690 0.091570 0.984113 
-0.909588 0.971789 4.816505 -0.158490 0.095012 0.982658 
-13.044035 12.453772 20.109594 -0.372355 0.327181 0.864251 
0.488056 -0.280637 -2.073732 -0.154785 0.080645 0.984464 
-2.394459 2.344260 18.474073 -0.141948 0.107745 0.983862 
2.973839 0.559734 -13.870518 -0.097932 0.155939 0.982709 
-3.807468 7.212581 18.734182 -0.178115 0.261562 0.945535 
-22.184242 22.435589 103.762009 -0.199048 0.192435 0.960784 
3.016950 3.192189 -15.841262 -0.102786 0.331694 0.936356 
9.207294 26.379719 5.547443 0.095784 0.609482 0.786059 
2.765454 1.121417 -13.175976 -0.105150 0.179862 0.977812 
3.706240 -1.683450 -24.364756 -0.146013 0.072573 0.986557 
9.093831 25.715437 4.858899 0.095325 0.607748 0.787423 
-10.453770 10.956882 25.023865 -0.253929 0.219533 0.941922 
2.693031 0.868245 -13.707462 -0.112559 0.171286 0.978548 
-11.835779 12.160239 30.310600 -0.253318 0.219122 0.942192 
-10.696833 11.169270 26.208504 -0.252813 0.218602 0.942442 
9.274599 26.249687 5.417913 0.097588 0.608980 0.786219 
2.596819 3.146912 -12.871158 -0.109723 0.278866 0.953371 
0.238683 8.681353 -8.383178 -0.174290 0.423510 0.887887 
-6.193672 8.182180 12.095993 -0.237886 0.225540 0.944651 
2.601730 0.909662 -13.044728 -0.113480 0.167202 0.979177 
-9.221694 9.904618 20.991205 -0.251614 0.217780 0.942942 
1.781148 1.401389 -10.462924 -0.137964 0.188104 0.971720 
1.702990 2.327888 -11.901759 -0.152253 0.257658 0.952292 
2.694084 2.813828 -13.663048 -0.102839 0.316630 0.940278 
1.703014 -0.810252 -10.314771 -0.143341 0.072886 0.986921 
-3.067478 3.153514 20.156713 -0.149839 0.107210 0.982845 
0.917249 0.047325 -3.077155 -0.131428 0.084772 0.987649 
-9.831225 14.285869 45.334435 -0.189600 0.229202 0.954229 
0.591562 -0.325256 -2.625647 -0.151077 0.071556 0.985839 
0.591463 -0.325206 -2.625042 -0.151077 0.071556 0.985839 
-2.339458 1.780455 13.340379 -0.159542 0.093803 0.982659 
-0.696228 0.533669 4.464311 -0.154687 0.082581 0.984433 
-7.113699 27.318571 22.153578 -0.196101 0.560359 0.794330 
-80.574196 63.148949 81.443306 -0.573314 0.443152 0.686300 
-8.716505 8.286075 50.303318 -0.164517 0.137800 0.976575 
-5.003604 4.596169 33.314453 -0.149906 0.119802 0.981218 
0.117092 -0.048161 0.339383 -0.134623 0.137276 0.980919 
0.167564 0.061841 0.502203 -0.052804 0.245680 0.966765 
0.017401 0.100594 1.001377 -0.107288 0.152458 0.978688 
0.000879 0.062334 0.998593 -0.142490 0.133193 0.978802 
0.025100 0.040696 0.998514 -0.143023 0.132118 0.980727 
0.000061 0.000327 1.000665 -0.151839 0.103056 0.981525 
0.056606 0.030054 0.985188 -0.073554 0.103072 0.988111 
0.045956 0.044320 0.991712 -0.099003 0.119870 0.984999 
0.000472 0.017399 0.997124 -0.103861 0.083450 0.986950 
0.000524 0.000919 1.001529 -0.137516 0.087290 0.984292 
0.000502 0.017447 0.996798 -0.141995 0.103197 0.982357 
0.000329 0.001084 1.001320 -0.148987 0.103742 0.981669 
-0.003340 0.250914 1.010262 -0.123057 0.283585 0.948646 
0.000346 0.002633 0.999944 -0.145320 0.098630 0.982556 
0.000232 0.001147 0.999947 -0.122672 0.085559 0.985256 
0.000188 0.001098 0.999940 -0.149187 0.103829 0.981628 
0.000149 0.002976 0.999913 -0.120958 0.109257 0.982390 
0.055946 0.351090 1.012397 -0.029389 0.374974 0.921359 
0.020133 0.150287 1.003865 -0.094265 0.235904 0.963524 
-0.003539 0.048116 1.001174 -0.119457 0.121412 0.981743 
0.004021 0.002916 0.993051 -0.120317 0.087449 0.985331 
0.005542 0.004176 1.001033 -0.130562 0.096339 0.984241 
0.018826 0.004883 0.966536 -0.092160 0.099281 0.985673 
0.030067 0.005483 1.058980 -0.070110 0.077277 0.990657 
-0.000152 0.001274 0.999910 -0.101704 0.093379 0.985889 
-0.000217 0.001869 0.999783 -0.139359 0.095668 0.983364 
-0.000014 0.001360 0.999927 -0.122864 0.085726 0.985219 
-0.000029 0.000508 0.999941 -0.106085 0.092343 0.985266 
0.000569 0.002447 0.999993 -0.122392 0.086585 0.985204 
-0.000628 0.006903 0.999860 -0.106158 0.085936 0.986825 
-0.001312 0.003264 1.012316 -0.120205 0.086375 0.985663 
-0.000104 0.003333 0.999884 -0.122918 0.087283 0.985081 
0.000323 0.000784 0.999988 -0.149105 0.103637 0.981658 
0.000303 0.000602 0.999995 -0.143091 0.095553 0.983010 
0.000136 0.000366 0.999962 -0.105579 0.080456 0.987332 
0.000306 0.000773 0.999984 -0.114261 0.083498 0.986286 
0.000073 0.000357 0.999952 -0.143270 0.095368 0.983002 
0.001905 0.006826 1.059195 -0.151833 0.108256 0.982257 
0.072272 0.164843 1.004724 -0.118228 0.215520 0.968904 
-0.000107 0.000317 0.999329 -0.147565 0.103330 0.981937 
0.000377 0.000144 0.999056 -0.110652 0.079379 0.986615 
0.000423 0.001394 0.999982 -0.138873 0.095307 0.983463 
0.000323 0.000585 0.999998 -0.120076 0.085043 0.985717 
0.000405 0.000707 1.000024 -0.115011 0.106799 0.983622 
-0.003074 0.251896 1.004795 -0.096407 0.300755 0.943722 
-0.029022 0.191915 0.998849 -0.129209 0.276245 0.948285 
-0.006987 0.044827 1.000932 -0.099331 0.129709 0.981549 
-0.030712 0.083633 1.002519 -0.133444 0.182395 0.969694 
-0.003518 0.048306 1.000633 -0.109736 0.151655 0.977681 
0.010813 0.170039 1.007558 -0.071060 0.234958 0.963907 
0.011672 0.009865 1.001778 -0.096297 0.116795 0.983684 
0.028589 0.009666 1.005494 -0.065325 0.078087 0.990091 
0.342649 0.182952 1.021728 0.200667 0.236485 0.945927 
-0.000219 0.001862 0.999844 -0.106240 0.080993 0.986316 
-0.000137 0.000816 0.999893 -0.083813 0.089096 0.986746 
0.005846 0.019404 1.000532 -0.109370 0.124240 0.982272 
0.000571 0.002440 0.999975 -0.110406 0.095568 0.984993 
0.001096 0.004336 1.000010 -0.105050 0.095711 0.985058 
-0.000626 0.006913 0.999855 -0.128767 0.097102 0.984194 
-0.001637 0.013510 0.999473 -0.092340 0.081625 0.987635 
0.000035 0.003498 0.999961 -0.105993 0.094968 0.985030 
0.000324 0.000785 0.999988 -0.115087 0.106872 0.983606 
0.000287 0.000486 1.000000 -0.083428 0.088797 0.986807 
0.000194 0.000558 0.999982 -0.098534 0.077357 0.987883 
0.000184 0.000603 0.999965 -0.105896 0.092427 0.985279 
0.001603 0.001735 1.000222 -0.092893 0.091787 0.986352 
0.004336 0.011547 1.000428 -0.092769 0.080265 0.987289 
0.026348 0.063968 1.003024 -0.123386 0.140169 0.979726 
0.000079 0.000521 0.999938 -0.150750 0.103435 0.981547 
0.000228 0.000718 0.999960 -0.147290 0.103555 0.981956 
0.043033 0.047784 1.004013 -0.055414 0.132426 0.984605 
0.047354 0.045831 1.005398 -0.106915 0.129600 0.983575 
0.000230 0.001094 0.999958 -0.144989 0.099103 0.982042 
0.000191 0.001109 0.999940 -0.145447 0.097531 0.982644 
0.000272 0.001283 0.999961 -0.140182 0.099944 0.983003 
0.000289 0.000492 0.999998 -0.142822 0.104081 0.982055 
0.001395 0.002070 1.000175 -0.151357 0.094474 0.982895 
0.000569 0.002436 0.999968 -0.144202 0.101651 0.982377 
-0.000155 0.001272 0.999930 -0.139492 0.094663 0.983105 
0.031258 -0.005207 1.012532 -0.118176 0.090406 0.986402 
0.003086 0.050904 1.002040 -0.122174 0.121362 0.982303 
-0.000096 0.000840 0.999929 -0.137893 0.098997 0.983235 
0.043327 0.048384 1.005483 -0.088977 0.128385 0.984434 
0.000173 0.001830 0.999938 -0.146510 0.101074 0.982250 
0.000221 0.000676 0.999970 -0.145164 0.102602 0.981867 
0.021377 0.022572 1.002288 -0.133472 0.113601 0.982751 
0.048983 0.039287 1.005823 -0.094660 0.119807 0.984510 
-0.000062 0.000790 0.999921 -0.143971 0.102336 0.981793 
0.000894 0.001666 1.000068 -0.142953 0.096291 0.982697 
0.118330 0.228449 1.007401 0.006779 0.283475 0.953709 
0.000043 0.000434 0.999942 -0.150771 0.103384 0.981549 
0.000072 0.000754 0.999945 -0.146589 0.100336 0.982310 
0.000201 0.003079 0.999975 -0.146474 0.101926 0.982172 
0.000230 0.001093 0.999956 -0.145248 0.103891 0.981715 
0.000427 0.001397 0.999985 -0.146338 0.100777 0.982304 
0.010611 0.008362 1.001599 -0.121887 0.095928 0.984477 
0.000274 0.001286 0.999932 -0.143774 0.100236 0.982601 
0.000214 0.001377 0.999930 -0.117707 0.082730 0.985844 
0.000487 0.000850 1.000022 -0.150509 0.103622 0.981563 
0.000496 0.001877 0.999974 -0.151646 0.103938 0.981464 
0.000185 0.000606 0.999963 -0.151044 0.102902 0.981762 
-0.000494 0.006271 0.999772 -0.114481 0.084463 0.985622 
0.003663 0.011493 1.000279 -0.151560 0.105633 0.981534 
0.003479 0.022584 1.000268 -0.143694 0.112057 0.981366 
-0.000152 0.001266 0.999897 -0.146739 0.100687 0.982255 
0.005516 0.004152 1.000993 -0.137446 0.102220 0.982831 
0.026255 0.063895 1.003065 -0.127866 0.143284 0.979615 
0.026572 0.064289 1.003063 -0.112577 0.140511 0.980753 
0.000170 0.001830 0.999950 -0.152841 0.102212 0.981633 
0.141267 0.372760 1.013923 0.007070 0.407872 0.909365 
0.000079 0.000484 0.999952 -0.152896 0.101551 0.981690 
-0.000063 0.000793 0.999932 -0.141570 0.098570 0.982915 
0.078083 0.103600 1.003678 -0.038838 0.159667 0.981774 
0.010595 0.008446 1.002374 -0.129292 0.094526 0.984704 
0.000043 0.000433 0.999939 -0.147413 0.103370 0.981957 
0.000128 0.000719 0.999946 -0.137832 0.098218 0.983278 
0.000339 0.002595 0.999975 -0.145322 0.098600 0.982559 
0.000428 0.001395 0.999977 -0.147152 0.103996 0.981933 
0.000214 0.001377 0.999941 -0.150157 0.103531 0.981641 
0.000406 0.000703 1.000019 -0.146782 0.099711 0.982197 
0.000186 0.000607 0.999965 -0.147317 0.103482 0.981959 
-0.000195 0.005485 0.999736 -0.151941 0.095745 0.982684 
-0.000522 0.006291 0.999971 -0.145893 0.101251 0.982219 
0.000126 0.016881 1.000252 -0.148996 0.109222 0.981095 
0.000570 0.002421 0.999927 -0.110411 0.095555 0.984994 
0.277272 -0.031307 1.048043 0.143309 0.076098 0.981892 
0.446486 0.033744 0.993264 0.295772 0.135354 0.940399 
0.016102 0.005517 1.003820 -0.130981 0.098789 0.984061 
0.050918 -0.003323 1.017425 -0.115161 0.099774 0.986127 
0.009991 0.014028 1.001191 -0.144914 0.111186 0.981574 
0.005466 0.004150 1.001310 -0.147559 0.105487 0.981800 
0.011142 0.011019 0.975918 -0.147178 0.109098 0.981499 
0.000305 0.000802 1.000641 -0.147178 0.103568 0.981973 
0.000006 0.000466 1.000651 -0.153248 0.099286 0.981993 
0.032450 -0.005962 1.002320 -0.090809 0.103737 0.986235 
-0.000313 0.001394 1.001383 -0.116289 0.083514 0.986007 
0.003395 0.022762 1.001020 -0.141949 0.114899 0.981098 
0.000096 0.002722 1.001371 -0.143080 0.097053 0.982876 
0.014751 0.008270 1.000613 -0.144953 0.106630 0.982211 
0.000448 0.000941 0.996552 -0.120298 0.085568 0.985626 
0.013367 -0.001346 0.916515 -0.151334 0.096328 0.982552 
-0.004549 0.017530 0.998901 -0.109922 0.107299 0.983345 
0.002881 0.023237 1.000282 -0.082529 0.110324 0.984573 
0.000234 0.001145 0.994744 -0.106325 0.093327 0.985104 
0.001075 0.000996 0.981342 -0.115368 0.084975 0.985913 
-0.055993 0.296339 1.022639 -0.173838 0.315762 0.929341 
-0.000152 0.001642 1.000581 -0.143358 0.096292 0.982906 
0.003807 0.035684 1.001186 -0.117055 0.138423 0.979270 
0.007078 0.005026 1.000950 -0.119107 0.109898 0.983187 
-0.030108 0.199748 1.018476 -0.106068 0.253757 0.956020 
0.133034 0.065442 1.003754 0.036623 0.146975 0.982841 
0.000020 0.000617 1.000628 -0.125784 0.082060 0.985680 
0.000357 0.001376 1.000565 -0.110546 0.094600 0.985074 
0.011680 0.009129 1.000884 -0.113565 0.091903 0.985752 
0.016172 0.007688 1.001775 -0.090817 0.076960 0.988609 
0.005781 0.019286 1.000180 -0.098830 0.092896 0.986238 
0.011693 0.009137 1.000879 -0.110702 0.092080 0.986171 
0.021404 0.040009 1.000331 -0.087405 0.113785 0.985869 
0.000008 0.000949 1.001204 -0.119976 0.082859 0.985452 
0.000054 0.000976 1.000651 -0.143205 0.095787 0.982975 
-0.000218 0.001251 1.000542 -0.088327 0.065316 0.989750 
0.019956 0.150507 1.009765 -0.068715 0.209461 0.969769 
0.114966 0.222929 1.004627 0.020365 0.279724 0.954383 
0.023254 0.030607 1.000407 -0.125550 0.118381 0.982877 
0.000756 0.001218 1.000656 -0.143283 0.099710 0.982513 
0.000769 0.002047 1.000494 -0.144250 0.105391 0.981929 
-0.000533 0.006204 1.000083 -0.140225 0.097860 0.983111 
0.000761 0.001220 1.000646 -0.147116 0.103714 0.981813 
0.038022 0.010683 1.004468 -0.106021 0.111442 0.984749 
0.031400 -0.004849 1.009899 -0.128721 0.099505 0.984581 
0.001001 0.058891 1.002230 -0.124774 0.155680 0.976688 
-0.042096 0.073532 1.365673 -0.144495 0.129373 0.980882 
0.003535 0.011662 1.001038 -0.107655 0.103448 0.984514 
0.112588 0.222208 1.014159 0.018140 0.276950 0.955321 
0.060925 0.056774 1.004657 -0.059850 0.157085 0.981773 
0.014540 0.029107 1.002238 -0.115111 0.130444 0.981666 
-0.000112 0.000911 1.001400 -0.123223 0.108627 0.982794 
0.000044 0.000701 1.001437 -0.120165 0.085039 0.985716 
0.006702 0.013127 1.000821 -0.095561 0.103645 0.985487 
-0.000101 0.000761 1.001454 -0.122798 0.085154 0.985284 
-0.000114 0.000912 1.001413 -0.143252 0.095684 0.982981 
0.002525 -0.000295 0.988785 -0.116243 0.082602 0.985952 
0.044622 -0.005173 1.003390 -0.111938 0.128935 0.984164 
0.192386 0.419270 0.789818 0.002234 0.497235 0.866132 
0.011896 0.029961 1.003489 -0.128177 0.116260 0.982254 
0.006021 0.003960 1.001642 -0.103963 0.083387 0.987080 
0.023514 0.030721 1.000718 -0.104092 0.109010 0.985051 
0.032733 -0.006130 1.001298 -0.077273 0.086733 0.988412 
0.012011 0.029869 1.002695 -0.128543 0.117835 0.982339 
0.020700 0.019253 1.001240 -0.115474 0.101368 0.985366 
0.014691 0.029234 1.002112 -0.122420 0.115469 0.982809 
-0.000314 0.001396 1.001394 -0.143820 0.094390 0.982780 
0.006839 0.013467 1.000947 -0.137972 0.105256 0.982754 
-0.000041 0.001482 1.001364 -0.163507 0.111506 0.980045 
0.005847 0.054592 0.997919 -0.138102 0.136489 0.978974 
0.032412 0.014703 1.006793 -0.129235 0.111925 0.983427 
0.003413 0.050387 1.000181 -0.102267 0.122205 0.983497 
0.012637 0.011403 1.000661 -0.144986 0.109181 0.981860 
0.006597 -0.003380 0.959317 -0.118845 0.084578 0.985641 
-0.000549 0.000821 1.003505 -0.146670 0.100146 0.982329 
0.012801 0.009978 0.994998 -0.100298 0.088253 0.986932 
0.030649 0.008704 0.994690 -0.089116 0.093020 0.987805 
-0.000606 0.000862 1.003459 -0.106266 0.079806 0.986438 
-0.000629 0.000912 1.003281 -0.135519 0.095602 0.983890 
0.001266 0.001978 1.001701 -0.103939 0.076624 0.987083 
0.013670 0.027254 1.008984 -0.127928 0.111508 0.982502 
-0.000411 0.001084 1.003118 -0.163437 0.109932 0.980236 
0.062731 0.054379 0.990382 -0.035604 0.119299 0.987389 
0.000076 0.003097 1.000576 -0.135229 0.097547 0.983730 
0.000263 0.002421 1.000793 -0.134015 0.094604 0.983997 
-0.000679 0.001092 1.003391 -0.149414 0.103618 0.981627 
-0.000594 0.000673 1.003745 -0.113554 0.080190 0.986104 
0.006579 0.012208 1.000103 -0.097014 0.103923 0.985211 
0.003064 0.060682 1.022144 -0.120526 0.153149 0.977714 
0.005393 0.011607 1.006227 -0.148311 0.122336 0.981079 
-0.001504 0.064247 1.022917 -0.118307 0.141411 0.979694 
0.000062 0.000628 1.000014 -0.145537 0.097178 0.982665 
0.233340 1.156270 1.203424 0.034743 0.705964 0.706390 
0.000803 0.002285 1.001760 -0.128488 0.094166 0.984335 
0.010775 -0.005019 0.933017 -0.120527 0.085093 0.985098 
-0.003259 0.003235 1.020680 -0.111693 0.080544 0.986561 
-0.008205 0.007664 1.048048 -0.160768 0.111701 0.980388 
0.000004 0.002288 1.004931 -0.135429 0.095965 0.983616 
0.017343 0.016352 1.001832 -0.099787 0.096562 0.986668 
0.009775 0.006983 1.001884 -0.135765 0.100337 0.983548 
0.010952 0.015903 1.000516 -0.081186 0.084537 0.988335 
0.060958 0.056458 1.002913 -0.034415 0.119858 0.987638 
0.009780 0.006988 1.001922 -0.123047 0.099309 0.984526 
0.000407 0.001311 1.000409 -0.149015 0.103933 0.981644 
0.000576 0.001058 1.000544 -0.115673 0.083311 0.986086 
0.000637 0.001211 1.000522 -0.138826 0.094622 0.982741 
0.017426 0.016424 1.002027 -0.133568 0.109588 0.982492 
0.029225 0.010101 1.007241 -0.126877 0.110076 0.983833 
0.006690 0.014137 1.022123 -0.143389 0.110391 0.981835 
0.076147 0.179669 1.013927 -0.076562 0.223964 0.968785 
0.023563 0.031508 1.002376 -0.094412 0.109203 0.985898 
0.000138 0.000418 0.997871 -0.145698 0.097171 0.982635 
0.014725 0.007393 0.998206 -0.108490 0.090882 0.986500 
0.000084 -0.000229 0.998987 -0.112088 0.079263 0.986402 
0.021282 0.020132 1.002467 -0.082347 0.094807 0.987700 
0.000229 0.001280 0.999295 -0.146538 0.100739 0.982276 
0.003444 0.023861 1.002999 -0.132805 0.112307 0.982278 
-0.034950 0.096332 1.020931 -0.149287 0.163210 0.971904 
0.017466 0.015482 1.001708 -0.132077 0.109732 0.983179 
-0.034355 0.095374 1.017181 -0.183138 0.171602 0.967648 
0.000183 0.000098 0.999108 -0.159438 0.114822 0.980280 
-0.004642 0.012004 1.051671 -0.138021 0.106298 0.982222 
0.115754 0.015343 1.026130 -0.087493 0.122664 0.987713 
0.000232 0.001096 0.999952 -0.114322 0.083771 0.986256 
0.000658 0.000977 1.000059 -0.122332 0.085422 0.985309 
0.000230 0.000729 0.999970 -0.113156 0.083012 0.986532 
0.000319 0.000923 0.999984 -0.145353 0.097395 0.982670 
0.000273 0.001282 0.999957 -0.145385 0.097655 0.982641 
0.000577 0.001342 1.000350 -0.122364 0.085691 0.985284 
0.000053 0.000796 0.999938 -0.121100 0.089877 0.985468 
0.011388 0.012889 1.001364 -0.122650 0.104003 0.984554 
0.010406 0.012989 1.001374 -0.105624 0.093717 0.986341 
0.000044 0.000589 1.000408 -0.122783 0.085088 0.985285 
0.000097 0.000822 0.999953 -0.143246 0.095719 0.982973 
0.000090 0.000952 0.999944 -0.143251 0.095818 0.982963 
0.014719 0.028950 1.001564 -0.101581 0.132205 0.982058 
0.037674 0.021130 1.006015 -0.071911 0.126935 0.984516 
0.001429 0.002059 0.999994 -0.093062 0.092091 0.986306 
0.000817 0.001231 1.000076 -0.098388 0.091684 0.985503 
0.000635 0.001719 0.999978 -0.122349 0.086013 0.985257 
0.000964 0.002161 1.000670 -0.088561 0.073205 0.988655 
0.000027 0.000652 0.999931 -0.147189 0.099738 0.982300 
0.000273 0.001282 0.999957 -0.120114 0.085615 0.985665 
0.000232 0.001098 0.999957 -0.142668 0.097122 0.982919 
0.011373 0.012853 1.001341 -0.137222 0.106004 0.982926 
0.010451 0.013062 1.001523 -0.112167 0.092129 0.985531 
0.018931 0.019221 1.002588 -0.105851 0.100736 0.985233 
0.000232 0.001152 0.999956 -0.113151 0.083357 0.986504 
0.000189 0.001103 0.999947 -0.089284 0.072335 0.988648 
0.001449 0.002570 0.982482 -0.133605 0.094748 0.983538 
0.000406 0.000706 1.000021 -0.143010 0.095631 0.983014 
0.000483 0.000846 1.000022 -0.122473 0.085319 0.985300 
0.000419 0.001303 0.999984 -0.119993 0.085632 0.985678 
0.000423 0.001392 0.999998 -0.146340 0.100773 0.982304 
-0.000384 0.001901 1.005498 -0.122636 0.085788 0.985275 
0.115357 0.223028 1.009520 0.020615 0.278669 0.954731 
0.006959 0.030284 1.000838 -0.114894 0.109985 0.983396 
-0.003750 0.251954 1.012821 -0.096369 0.298857 0.944395 
-0.009734 0.045574 1.151245 -0.135387 0.116330 0.982364 
0.010756 0.170956 1.007991 -0.071068 0.235631 0.963748 
0.020188 0.011048 1.051558 -0.084476 0.097446 0.987254 
0.011667 0.010720 1.001861 -0.103640 0.091135 0.986855 
0.005536 0.004170 1.001017 -0.131547 0.095173 0.984229 
0.010135 0.013579 1.001064 -0.115970 0.118096 0.982630 
0.033612 0.003352 1.010275 -0.059916 0.065873 0.991802 
0.028678 0.009704 1.005975 -0.089171 0.094820 0.987711 
0.016302 0.005584 1.003917 -0.084362 0.095386 0.986473 
0.281093 -0.031325 1.062998 0.144724 0.075092 0.981890 
0.000175 0.001843 0.999963 -0.143175 0.096490 0.982910 
0.000043 0.000436 0.999942 -0.145559 0.097045 0.982674 
0.013214 0.005349 0.985181 -0.104754 0.112622 0.983983 
0.000073 0.000357 0.999952 -0.116121 0.082794 0.986075 
0.000113 0.000934 0.999952 -0.115279 0.107006 0.983569 
0.000507 0.001911 0.999995 -0.146277 0.101129 0.982278 
0.026649 0.064305 1.002568 -0.110827 0.141041 0.980950 
0.000235 0.000670 0.999974 -0.119911 0.082717 0.985463 
0.007360 0.021755 1.000721 -0.125956 0.111431 0.983356 
0.012071 0.029087 1.001318 -0.103986 0.132318 0.981798 
0.000187 0.001137 0.998846 -0.120290 0.085570 0.985641 
0.020167 0.034040 1.001924 -0.103301 0.118499 0.984512 
0.000247 0.001097 0.999958 -0.110700 0.094407 0.985071 
-0.000086 0.000614 0.999903 -0.114595 0.083367 0.986258 
-0.000028 0.000962 1.001629 -0.120203 0.085238 0.985696 
0.000453 0.001225 0.999996 -0.125127 0.106521 0.982818 
0.000167 0.000662 0.999960 -0.107165 0.108386 0.983509 
0.005546 0.004170 1.000996 -0.094102 0.094263 0.985684 
0.000274 0.001283 0.999955 -0.139731 0.095423 0.983303 
0.011641 0.022811 0.994055 -0.084209 0.111150 0.985097 
0.000942 0.001508 1.000796 -0.098213 0.091873 0.985510 
0.000136 0.000892 0.999676 -0.115287 0.106995 0.983568 
0.000232 0.001146 0.999941 -0.115170 0.107200 0.983561 
0.000185 0.001091 0.997950 -0.122894 0.085644 0.985211 
0.000905 0.001144 1.000107 -0.120350 0.090174 0.985532 
-0.000384 0.001900 1.005496 -0.094215 0.091489 0.986304 
0.056015 0.352890 1.013687 -0.029283 0.375893 0.921004 
0.006904 0.030165 1.001123 -0.118860 0.117057 0.983413 
-0.003425 0.252262 1.010447 -0.081431 0.300263 0.945028 
-0.009679 0.043076 1.113059 -0.117612 0.131897 0.980861 
-0.003565 0.048219 1.001537 -0.115125 0.118876 0.982156 
0.016276 0.005615 1.004578 -0.105997 0.111391 0.983862 
-0.000153 0.001279 0.999929 -0.114641 0.083921 0.986207 
-0.000028 0.000509 0.999934 -0.102948 0.076651 0.987259 
0.005837 0.019353 1.000493 -0.115876 0.105868 0.984551 
-0.000627 0.006896 0.999881 -0.125570 0.097533 0.984662 
-0.000639 0.008162 0.999994 -0.114964 0.089669 0.985680 
0.000323 0.000783 0.999988 -0.110636 0.094135 0.985104 
0.000399 0.001560 1.000041 -0.115005 0.107567 0.983542 
0.000354 0.000918 0.999987 -0.108153 0.080692 0.986897 
0.000492 0.000857 1.000024 -0.105238 0.093309 0.985275 
0.001496 0.003495 0.982249 -0.115795 0.111061 0.982933 
0.000668 0.001591 1.000742 -0.113881 0.084135 0.986281 
0.001170 0.001524 1.000142 -0.119368 0.085810 0.985737 
0.000353 0.000822 0.999993 -0.116345 0.077747 0.986665 
0.037827 0.021163 1.005327 -0.071813 0.127045 0.984502 
-0.000152 0.001273 0.999906 -0.146738 0.100691 0.982255 
-0.000112 0.002200 0.999920 -0.143390 0.096760 0.982855 
-0.000061 0.000801 0.999921 -0.106112 0.092602 0.985239 
0.003529 0.022760 1.000414 -0.106579 0.099457 0.985304 
0.003647 0.011478 1.000321 -0.151331 0.102780 0.981967 
-0.000633 0.006910 0.999920 -0.143252 0.091318 0.983064 
-0.000555 0.002421 1.007716 -0.150469 0.104089 0.981546 
0.000324 0.000786 0.999988 -0.143074 0.095692 0.983000 
0.000329 0.000688 0.999999 -0.112654 0.080136 0.986216 
0.000371 0.000815 0.999998 -0.120036 0.085232 0.985706 
0.000304 0.000604 0.999997 -0.139712 0.094893 0.983355 
0.000136 0.000366 0.999962 -0.110804 0.093775 0.985119 
0.000280 0.000994 0.999971 -0.122634 0.085438 0.985271 
0.000079 0.000480 0.999948 -0.139891 0.094799 0.983339 
0.000196 0.000563 0.999973 -0.120564 0.082128 0.985431 
0.001171 0.001524 1.000140 -0.142418 0.096249 0.983039 
0.001603 0.001738 1.000239 -0.102151 0.070465 0.988122 
0.000895 0.001669 1.000072 -0.139239 0.095722 0.983342 
0.000493 0.000858 1.000022 -0.119934 0.085267 0.985716 
0.000820 0.001233 1.000078 -0.141170 0.100777 0.982728 
0.000590 0.001909 0.999988 -0.147043 0.104330 0.981915 
0.000514 0.001925 0.999965 -0.147093 0.104341 0.981907 
0.005516 0.004155 1.001014 -0.142305 0.097289 0.982649 
-0.000649 0.006829 1.000340 -0.151072 0.107018 0.981145 
0.444885 0.032519 0.994322 0.294244 0.134210 0.941045 
-0.000107 0.003342 0.999932 -0.145635 0.099136 0.982463 
-0.000171 0.001203 0.999934 -0.146410 0.096157 0.982694 
0.001086 0.002144 1.000090 -0.131373 0.086483 0.984940 
0.011698 0.010741 1.001772 -0.102144 0.081971 0.987556 
0.000510 0.001918 0.999988 -0.147094 0.104335 0.981907 
0.000573 0.002441 0.999934 -0.113636 0.081317 0.985971 
0.001097 0.004356 1.000051 -0.138336 0.097519 0.983327 
0.000184 0.000603 0.999966 -0.145455 0.097164 0.982677 
-0.000024 0.001715 0.999938 -0.143328 0.096393 0.982898 
0.016197 0.005581 1.004413 -0.129809 0.090741 0.984872 
0.003155 0.051170 1.001125 -0.142684 0.132296 0.978875 
0.020066 0.148976 1.003553 -0.110468 0.214232 0.967991 
-0.000139 0.000815 0.999886 -0.150875 0.103604 0.981512 
0.056511 0.355115 1.010210 -0.034488 0.369685 0.923068 
0.241712 0.350838 1.009127 0.125090 0.373448 0.913898 
0.001595 0.001733 1.000262 -0.134799 0.095245 0.983741 
-0.000035 0.000460 0.999933 -0.149384 0.099448 0.981980 
0.000090 0.000949 0.999944 -0.142774 0.097011 0.982915 
0.000175 0.001840 0.999960 -0.122709 0.086104 0.985206 
0.026455 0.064108 1.003044 -0.090673 0.141815 0.982128 
0.000073 0.000357 0.999951 -0.142123 0.096423 0.983088 
0.000079 0.000479 0.999949 -0.117827 0.081979 0.985892 
0.000168 0.000665 0.999960 -0.138976 0.095372 0.983081 
0.000301 0.000765 0.999983 -0.120478 0.082290 0.985428 
0.000228 0.000714 0.999950 -0.150663 0.103546 0.981549 
0.000360 0.000931 0.999998 -0.144873 0.099670 0.982267 
0.000126 0.000713 0.999945 -0.111967 0.079951 0.986369 
0.000072 0.000756 0.999946 -0.139893 0.095013 0.983319 
0.010560 0.005793 1.001718 -0.117724 0.094791 0.985165 
0.000329 0.000686 0.999999 -0.145347 0.097224 0.982687 
0.006498 0.012152 1.000580 -0.117609 0.094250 0.985085 
0.024875 0.011524 1.004393 -0.113169 0.094672 0.986314 
0.000338 0.001271 0.999974 -0.147212 0.103914 0.981932 
0.000190 0.001103 0.999943 -0.102203 0.076781 0.987374 
0.000124 0.000980 0.999967 -0.140271 0.095452 0.983210 
0.000272 0.001281 0.999961 -0.110677 0.094566 0.985059 
0.000213 0.001380 0.999927 -0.143156 0.096144 0.982945 
0.000426 0.000662 1.000028 -0.098780 0.076671 0.987911 
0.000489 0.000851 1.000025 -0.142477 0.096938 0.982963 
0.001395 0.002068 1.000164 -0.134294 0.093120 0.983613 
0.000591 0.001910 1.000006 -0.146220 0.101129 0.982286 
0.002169 0.008931 1.000111 -0.145067 0.105939 0.981967 
0.003670 0.011480 1.000219 -0.151328 0.102786 0.981967 
0.028850 0.009647 1.004894 -0.099339 0.114526 0.984822 
0.001471 0.002005 1.000197 -0.121674 0.086232 0.985320 
0.003252 0.051008 1.000158 -0.140227 0.133481 0.979090 
-0.000139 0.000820 0.999889 -0.145690 0.097323 0.982629 
0.005465 0.055207 1.000363 -0.108342 0.124557 0.982169 
0.009715 0.013595 1.001024 -0.138424 0.106542 0.982709 
0.014218 0.008342 1.003152 -0.127139 0.103920 0.984099 
0.000153 0.001902 0.999938 -0.151832 0.103951 0.981436 
0.000894 0.001665 1.000073 -0.146011 0.100959 0.982332 
